# .PCD v0.7 - Point Cloud Data file format
VERSION 0.7
FIELDS x y z rgb
SIZE 4 4 4 4
TYPE F F F U
COUNT 1 1 1 1
WIDTH 1227
HEIGHT 1
VIEWPOINT 0 0 0 1 0 0 0
POINTS 1227
DATA ascii
-0.21507876 -0.051402502 1.543 7108469
-0.20425725 -0.051402502 1.543 7173750
-0.19432044 -0.057786763 1.542256 9015949
0.33885217 -0.058962286 1.5478709 4084058
0.34422597 -0.053523201 1.5438981 5332586
0.37465417 -0.053214829 1.5454985 7832189
-0.24371733 -0.04106164 1.5429385 6120288
-0.23401651 -0.048697099 1.543 13883022
-0.22454764 -0.045499805 1.5430001 7370617
-0.21507874 -0.044638991 1.5429999 7371127
-0.20483699 -0.045025486 1.543 7239799
-0.24203981 -0.038055778 1.5414603 5659483
-0.213185 -0.03679334 1.543 7436921
-0.20628625 -0.037199147 1.543 7305335
0.366851 -0.0129859 1.543 6977140
0.37506592 -0.013526982 1.5430001 6976627
0.38377914 -0.012754015 1.5430001 6976372
0.35711199 -0.0027054299 1.543 7502225
0.3655661 -0.0050726314 1.5430001 7043191
0.37244251 -0.0063126031 1.5430001 6780789
0.35778823 0.0040580849 1.5430001 6712702
0.36319923 0.0020290427 1.543 8292474
0.35846448 0.012174301 1.543 15660028
-0.8248117 -0.16034199 1.55 3090985
-0.81529999 -0.16034199 1.5499998 2631456
-0.83263201 -0.15424201 1.557 2499617
-0.82581735 -0.15534808 1.5544547 2697509
-0.81513482 -0.15491039 1.5528001 2697251
-0.80540872 -0.15490882 1.5523334 2631716
-0.79528934 -0.15479416 1.5511667 2829870
-0.78545356 -0.15466298 1.5525455 3026218
-0.77573276 -0.15534171 1.5519092 2959660
-0.76498705 -0.15475252 1.5526923 3157030
-0.75446498 -0.1532333 1.5521538 2894377
-0.74514025 -0.15269774 1.5517501 2696742
-0.737167 -0.15286851 1.55 2630949
-0.72305042 -0.15199387 1.552 2434602
-0.71491218 -0.15241432 1.5523334 2565413
-0.70497644 -0.15315871 1.5519999 3223594
-0.69446528 -0.153717 1.5517498 2960931
-0.68524033 -0.15413043 1.5500001 2764076
-0.67534024 -0.152189 1.55 2369058
-0.64459753 -0.15150835 1.5523334 2827811
-0.63457525 -0.152189 1.55 3091500
-0.62506336 -0.152189 1.5499998 3487274
-0.61283398 -0.152189 1.55 2698274
-0.60468078 -0.152189 1.55 3158571
-0.59448946 -0.15286851 1.55 3223836
-0.58647263 -0.1527326 1.55 2697006
-0.57397121 -0.15273261 1.55 2500384
-0.56595397 -0.15286849 1.55 3026732
-0.55576277 -0.152189 1.55 3224106
-0.54489225 -0.152189 1.55 4013625
-0.742544 -0.14741699 1.557 3419433
-0.73542386 -0.1484445 1.5535001 3024679
-0.72514957 -0.14829771 1.554 2499365
-0.715244 -0.14741699 1.557 2630444
-0.70978397 -0.14741699 1.557 2631467
-0.68367147 -0.1484445 1.5535001 2764581
-0.67550015 -0.14810325 1.5535001 2237476
-0.66512126 -0.14783339 1.5528001 2829605
-0.65507185 -0.1484445 1.5535001 2698014
-0.64613402 -0.14829771 1.554 2630178
-0.63397986 -0.14750512 1.5543751 2697765
-0.62509418 -0.14697099 1.5523334 2566433
-0.6155681 -0.14697099 1.5523334 2828835
-0.60457492 -0.14705631 1.5532308 3026468
-0.59514105 -0.147192 1.5546668 2895141
-0.5857271 -0.14741974 1.5544547 3026219
-0.57415986 -0.14769301 1.5542001 3092520
-0.56515682 -0.147192 1.5546668 3158571
-0.55599523 -0.14717154 1.5544547 3355692
-0.54470581 -0.14653523 1.5521538 3158313
-0.53477305 -0.14633939 1.5514001 3355948
-0.52614391 -0.145491 1.5535001 3553331
-0.51483619 -0.14483762 1.5528001 3422006
-0.50412726 -0.14199826 1.55 4013627
-0.250025 -0.14131901 1.55 3948082
-0.24459 -0.14131901 1.5499998 3816498
-0.16034199 -0.14131901 1.55 10856608
-0.510499 -0.139227 1.557 3881524
-0.50358719 -0.1378846 1.5541999 3815219
-0.49579263 -0.13406751 1.5526251 2565957
-0.48827401 -0.13135399 1.5499998 14804184
-0.46608001 -0.130448 1.55 13290949
-0.45520926 -0.130448 1.55 13356742
-0.44388568 -0.130448 1.5499998 13554119
-0.43482664 -0.130448 1.5499998 13619912
-0.4242956 -0.13214661 1.5500001 13488328
-0.4149878 -0.1326222 1.5500001 13488583
-0.40493235 -0.131807 1.5500001 13488583
-0.39542052 -0.131807 1.5500001 13422533
-0.38454974 -0.13180698 1.5500001 13290948
-0.37522599 -0.13194944 1.554 13225155
-0.36455101 -0.1328578 1.5528001 13093579
-0.35472 -0.13357335 1.5519092 9408348
-0.34522122 -0.13312951 1.5528001 6315088
-0.33556101 -0.13313282 1.5525455 5986125
-0.32428989 -0.13270725 1.5526251 5722954
-0.31502363 -0.13362691 1.5525455 5460038
-0.30540013 -0.13467173 1.5517498 5262658
-0.29517618 -0.13430153 1.5510769 5065280
-0.28532463 -0.13312949 1.5528001 4933693
-0.27495739 -0.13339314 1.5526923 4736827
-0.2649163 -0.13517575 1.5523334 4342839
-0.25457841 -0.13613483 1.5529166 3948339
-0.24470821 -0.13597481 1.5542001 3619118
-0.23475163 -0.13548547 1.5526923 3355687
-0.22458898 -0.13507433 1.5532665 7106683
-0.2143198 -0.13329671 1.5544547 9804434
-0.20492092 -0.1337944 1.5542001 10000788
-0.19433871 -0.13381122 1.5526923 10132373
-0.18476756 -0.13448462 1.5532308 10395800
-0.17506056 -0.13351981 1.5512729 10724509
-0.16427316 -0.13372061 1.5516154 10856097
-0.084247701 -0.130448 1.5499998 2959649
-0.073829971 -0.13135399 1.5500001 2697505
-0.064568512 -0.13186529 1.5530001 2959906
-0.055201717 -0.13216943 1.552 3025443
-0.045423884 -0.13161285 1.5500001 3092004
-0.035329629 -0.130448 1.5499998 3223847
-0.025817826 -0.130448 1.55 3420455
-0.0067941649 -0.130448 1.55 3618093
0.07473585 -0.130448 1.55 12830398
-0.49138901 -0.128307 1.557 6251256
-0.48374489 -0.12441345 1.5538889 14277828
-0.47419769 -0.12392572 1.5519092 13225155
-0.46487209 -0.1250689 1.5538182 13290948
-0.45528969 -0.12623055 1.5538889 13356742
-0.44461343 -0.1268073 1.5530001 13554120
-0.43468902 -0.12604311 1.5543751 13554120
-0.42537552 -0.12589219 1.5542001 13554120
-0.41519633 -0.12697212 1.5550001 13554120
-0.40519729 -0.1264997 1.554 13554120
-0.39483625 -0.12696543 1.5554445 13554119
-0.384922 -0.12694199 1.557 13488327
-0.37536699 -0.128307 1.557 13225155
-0.33305299 -0.128307 1.557 5920334
-0.31121299 -0.128307 1.557 5460037
-0.30438799 -0.128307 1.557 5262659
-0.29483366 -0.128307 1.557 5262402
-0.28664398 -0.128307 1.557 5130815
-0.21430001 -0.128307 1.557 8883341
-0.195191 -0.128307 1.557 9804948
-0.181541 -0.128307 1.557 10921887
-0.17403349 -0.1276245 1.557 10921888
-0.167072 -0.127215 1.557 10921376
-0.084932439 -0.12446854 1.5510769 2762276
-0.07638748 -0.12666456 1.556 2959394
-0.063698597 -0.128307 1.557 3091236
-0.054598834 -0.128307 1.557 3157028
-0.044374883 -0.12688971 1.554 2961189
-0.033919413 -0.125688 1.5546668 3157798
-0.02505899 -0.1255628 1.5535001 3289384
-0.014887673 -0.12418073 1.5532665 3355434
-0.0057181469 -0.12468868 1.5528001 3487020
0.0040826271 -0.12519667 1.5523334 3618606
0.014969674 -0.12383582 1.5523334 3947057
0.025259146 -0.12415772 1.5515 4276022
0.034847502 -0.1249617 1.5528001 5790337
0.045217387 -0.12476346 1.5521538 12961977
0.055538591 -0.12414393 1.5527998 12698556
0.064665303 -0.12388075 1.5529166 12764349
0.075119719 -0.12410713 1.5523332 12830397
0.085410826 -0.12403354 1.5513998 12830397
0.094531134 -0.12273835 1.5525455 12830398
0.10474849 -0.12243 1.5517501 12895680
0.11533213 -0.12403354 1.5513998 12895935
0.12447446 -0.12273836 1.5525455 12896190
0.13478486 -0.12330457 1.5529999 12896190
0.14478356 -0.12271701 1.5515556 12830397
0.15422751 -0.12297449 1.55 12830402
0.16441874 -0.122295 1.55 9605737
0.17619534 -0.12320099 1.5500001 5920332
0.18333279 -0.122403 1.5513999 5722955
0.19295435 -0.122295 1.5499998 5722954
-0.27619585 -0.11678854 1.5556362 10001292
-0.26566303 -0.11511087 1.5551955 9606797
-0.088324204 -0.119577 1.55 1710371
0.057328701 -0.117387 1.557 12764604
0.062788628 -0.117387 1.557 12764604
0.0982778 -0.117387 1.557 12896191
0.10494533 -0.118117 1.5546666 12896190
0.1160225 -0.117387 1.557 12961983
0.14708249 -0.11848199 1.5535001 12896190
0.15452699 -0.11832557 1.554 12830409
0.16526344 -0.11743882 1.5544547 7894353
0.17445423 -0.117207 1.5546668 5986381
0.18481337 -0.11621255 1.5553845 5854538
0.19491556 -0.11585432 1.5548123 5788490
0.20501521 -0.11642885 1.5526923 5656904
0.21416761 -0.11567101 1.5537692 5591111
0.22449383 -0.11538278 1.5526923 5327939
0.23425454 -0.113952 1.5515556 5130816
0.24477643 -0.11376199 1.5531112 4868157
0.25448427 -0.11431002 1.5523334 4802364
0.26479009 -0.11548617 1.5529166 4867644
0.27513388 -0.11405664 1.5515 4670522
0.28496671 -0.11336543 1.5500001 4801593
0.29486674 -0.112783 1.5500001 7434890
0.306281 -0.11359839 1.5500001 12304052
0.31524932 -0.11414199 1.5500001 12106418
0.32476124 -0.114142 1.5500001 11974835
0.33552724 -0.11456009 1.55 11974577
0.34581578 -0.11526763 1.5519092 11448743
0.35475689 -0.11610737 1.5529999 10726047
0.36448404 -0.11363142 1.5523334 10199705
0.37435851 -0.1121035 1.55 10133912
0.38454974 -0.111424 1.55 10068120
0.39542049 -0.111424 1.55 10791846
0.40493226 -0.1121035 1.55 11383724
0.41444424 -0.111424 1.55 11843506
0.42531472 -0.112783 1.5500001 9080158
0.43482661 -0.11278301 1.5500001 3223851
0.4440667 -0.11359839 1.5500001 3618347
0.45520926 -0.11278298 1.5500001 3617834
0.46472099 -0.111424 1.5499998 3618348
0.71202898 -0.111424 1.55 3487773
0.74735802 -0.111424 1.55 3420452
0.75143504 -0.111424 1.55 3158820
-0.26642668 -0.10281408 1.5526979 15264470
-0.25894299 -0.10594815 1.5562552 9212297
0.23614001 -0.109198 1.557 5130304
0.240235 -0.109198 1.557 5196606
0.256614 -0.109198 1.557 4802108
0.26753399 -0.109198 1.557 4736061
0.27517802 -0.108652 1.557 4736315
0.28527898 -0.109198 1.557 4670258
0.29483402 -0.109198 1.557 6250385
0.30438799 -0.109198 1.557 12567221
0.315308 -0.109198 1.557 12106673
0.32531565 -0.10563357 1.5579575 11514789
0.334418 -0.109198 1.557 11843247
0.34533724 -0.109198 1.557 11120547
0.35352701 -0.109198 1.557 10462874
0.3668988 -0.10820618 1.5558333 10133913
0.3756758 -0.10655445 1.5538889 10133401
0.38470933 -0.10774744 1.5530001 10199450
0.39455444 -0.10749771 1.5550001 11120039
0.40539601 -0.109198 1.557 11646381
0.41466144 -0.10774744 1.5530001 11843253
0.42454559 -0.10749773 1.5550001 8553295
0.43460661 -0.108652 1.557 3158573
0.44621301 -0.1085538 1.5555999 3486762
0.45487213 -0.10758751 1.5535001 3617834
0.46597919 -0.10599981 1.5542001 3552300
0.4745658 -0.10521584 1.5529999 3421484
0.48432717 -0.10382264 1.5524999 3421741
0.49420446 -0.10276833 1.5515556 3487532
0.50321907 -0.102828 1.557 3881006
0.66718698 -0.100554 1.55 12764857
0.67615557 -0.10109739 1.55 12633273
0.68528396 -0.104404 1.5517501 13225429
0.69414788 -0.10541085 1.5529999 7367984
0.70531374 -0.10471205 1.5524703 4209970
0.71487075 -0.10406434 1.5517501 3948594
0.72480178 -0.10272779 1.5500001 3553833
0.73573083 -0.10451724 1.5517501 3552810
0.74485177 -0.10614467 1.5523334 3158569
0.75473386 -0.10553914 1.5519999 2961701
0.76526475 -0.10342266 1.5523334 2830114
0.77573282 -0.10364218 1.5519092 2961442
0.78476816 -0.10342267 1.5523334 2829604
0.79484892 -0.10372429 1.551 2698016
0.80612671 -0.10208275 1.5526251 3224620
0.81465596 -0.10178328 1.551 2961444
0.82481176 -0.10272779 1.5500001 3092771
0.83595431 -0.10327131 1.5500001 2895905
0.84525335 -0.10342266 1.5523334 2830117
0.85443664 -0.10257146 1.5506364 2961184
0.864218 -0.10293163 1.5500001 2696990
-0.25505576 -0.096686304 1.5536046 10988703
-0.24070863 -0.095035553 1.5559038 8687244
-0.23119445 -0.093881309 1.5574172 8883853
-0.22288264 -0.091149628 1.5567707 9015182
0.3141101 -0.092226923 1.5571446 3357243
0.48865899 -0.0982778 1.557 3356457
0.49684897 -0.0982778 1.557 3552557
0.57613379 -0.094071805 1.5507001 10857144
0.58563298 -0.093292914 1.5519999 13028030
0.59538156 -0.093895577 1.5523334 12896446
0.60331899 -0.092468224 1.5511667 12961983
0.61555147 -0.0924007 1.55 12961982
0.63511878 -0.094574831 1.5500001 12830653
0.64526713 -0.092877463 1.5535001 12830651
0.65544373 -0.094520748 1.5530001 12764860
0.66517049 -0.096855395 1.5530001 12764859
0.67550623 -0.097374424 1.5534999 12633272
0.68248498 -0.0982778 1.557 12633057
0.70978397 -0.0982778 1.557 4604736
0.71578997 -0.097185835 1.557 4210737
0.72479898 -0.096912853 1.557 3356202
0.73162401 -0.0982778 1.557 3356708
0.76711297 -0.0982778 1.557 3026982
0.81625199 -0.0982778 1.557 3487794
0.82717204 -0.0982778 1.557 3158556
0.83536202 -0.0982778 1.557 2960935
0.84491646 -0.0982778 1.557 2698273
0.85636538 -0.097675554 1.5546666 2697247
0.86480445 -0.096691959 1.5535001 2764323
0.87085098 -0.0955479 1.557 4213044
-0.25850281 -0.087114334 1.5516399 8160132
-0.22072308 -0.08582747 1.5512533 9080719
-0.21396287 -0.083981752 1.5527589 9146510
-0.20949973 -0.080037296 1.5568453 9014667
0.32063854 -0.089513958 1.5591305 2699322
0.33445024 -0.085247599 1.5568634 8686490
0.34893882 -0.08623451 1.5579009 7830905
0.36030325 -0.083706737 1.5592166 7501427
0.56799197 -0.0869653 1.55 7567990
0.57449901 -0.087242387 1.5550001 7436666
0.60529953 -0.087635763 1.5531819 12896190
0.61557645 -0.085793689 1.5534998 12896190
0.62510961 -0.085793674 1.5535001 12896189
0.6335482 -0.086219236 1.5544547 12830652
0.641536 -0.087358102 1.557 12830653
-0.20764391 -0.074115217 1.5516253 9014922
0.32960334 -0.075099409 1.5585916 3358268
0.33685315 -0.073714554 1.5562468 4277914
0.34077251 -0.078454196 1.5538765 11318429
0.35007724 -0.077933431 1.5536304 8555652
0.36453795 -0.075181544 1.5556492 7568507
-0.24323784 -0.065471523 1.5558333 10001786
-0.23518635 -0.065114185 1.5531819 7174008
-0.22611487 -0.064459555 1.556125 7174262
-0.214885 -0.061228659 1.557 7239799
-0.20360734 -0.069916189 1.5539452 9080714
0.33491331 -0.066466182 1.5540485 4609123
0.36911386 -0.067771494 1.5543878 7896955
-0.241872 -0.0597887 1.55 15724670
-0.23470764 -0.057318091 1.5500001 8028789
-0.22420748 -0.057071034 1.5500001 7174263
-0.21469565 -0.055712204 1.5500001 7174006
-0.20518374 -0.055712208 1.5500001 7305335
0.33229867 -0.05793649 1.5504324 3624539
0.36553383 -0.031369764 1.5558333 6911092
0.372637 -0.034124203 1.557 6976884
0.34704325 -0.024228225 1.557 7964294
0.35527602 -0.02428665 1.5563 6978169
0.36532122 -0.025330493 1.5513123 6911094
0.37387314 -0.024458973 1.5500001 6910835
0.34677419 -0.016849559 1.55 6318743
0.35485411 -0.014957937 1.5508748 8095104
0.36416733 -0.015811909 1.5500001 6911861
0.37558159 -0.017936621 1.55 6779507
0.35541046 -0.0060392786 1.5500001 7173001
0.36235568 -0.0072471299 1.5499998 7502711
0.357622 0.00545988 1.557 1024
-0.83363295 -0.150822 1.564 2368028
-0.82540637 -0.150822 1.564 2434594
-0.81580842 -0.150822 1.564 2434082
-0.80483949 -0.150822 1.564 2434602
-0.79524201 -0.150822 1.564 3354930
-0.78564399 -0.150822 1.564 3024932
-0.77467525 -0.150822 1.564 3354668
-0.76782 -0.150822 1.564 3157803
-0.81443733 -0.14808001 1.564 2697256
-0.80483973 -0.14808001 1.564 2631718
-0.79387105 -0.14808001 1.564 3158316
-0.77467525 -0.14808001 1.564 2960678
-0.76439202 -0.14739425 1.564 2565921
-0.75547975 -0.1467085 1.564 2564644
-0.74533361 -0.1458856 1.564 2893092
-0.73491293 -0.14465149 1.564 2827558
-0.72531551 -0.145337 1.564 2893096
-0.71434665 -0.14625134 1.564 3092005
-0.70406348 -0.14739425 1.564 2631710
-0.69515103 -0.1467085 1.564 2698540
-0.68418223 -0.143966 1.564 2500388
-0.67527026 -0.14328049 1.564 2697253
-0.66590101 -0.14442299 1.564 2895139
-0.65484059 -0.1442402 1.564 2631714
-0.64579123 -0.14396599 1.564 2631715
-0.63564521 -0.14314339 1.564 2763559
-0.62522501 -0.14259499 1.564 2697508
-0.61562699 -0.14259499 1.564 3354408
-0.60465801 -0.14259499 1.564 3025189
-0.59506035 -0.14259499 1.564 2894888
-0.58500552 -0.14350899 1.564 3224362
-0.57531643 -0.14314339 1.564 3026985
-0.56489605 -0.14259499 1.564 2631973
-0.55529827 -0.14259499 1.564 2961193
-0.54295802 -0.14259499 1.564 3290414
-0.53336048 -0.14259499 1.564 3487794
-0.52102101 -0.14259499 1.564 3882036
-0.518278 -0.14259499 1.564 3618870
-0.63207996 -0.139853 1.564 3026729
-0.62522501 -0.139853 1.564 2631972
-0.61562705 -0.139853 1.564 3157800
-0.605115 -0.139853 1.564 3091238
-0.592318 -0.139853 1.564 2763565
-0.57312268 -0.139853 1.564 3026731
-0.56763798 -0.139853 1.564 3092530
-0.54707152 -0.139853 1.564 2500636
-0.53473163 -0.139853 1.564 3618863
-0.52595663 -0.13930461 1.564 3947577
-0.51279402 -0.138025 1.564 3815477
-0.503196 -0.13299701 1.564 4077623
-0.2618815 -0.131626 1.564 4079668
-0.25502598 -0.131626 1.564 4078897
-0.24542801 -0.131626 1.564 3289895
-0.238573 -0.131626 1.564 3092519
-0.227604 -0.131626 1.564 954
-0.49496952 -0.12682749 1.564 4540046
-0.486743 -0.120657 1.564 15132869
-0.473032 -0.120657 1.564 13290948
-0.46480525 -0.120657 1.564 13356741
-0.45589301 -0.12271425 1.564 13422535
-0.44560975 -0.1234 1.564 13619913
-0.434641 -0.1220285 1.564 13554376
-0.42449456 -0.12175419 1.564 13619914
-0.41544524 -0.12202848 1.564 13619913
-0.40447649 -0.1234 1.564 13619913
-0.39487901 -0.1234 1.564 13685705
-0.38445836 -0.12394841 1.564 13554120
-0.37348941 -0.12669039 1.564 13356739
-0.36471435 -0.12751301 1.564 13093586
-0.35511672 -0.12751301 1.564 9013077
-0.34473541 -0.12770887 1.564 6117968
-0.33454996 -0.1272388 1.564 5986125
-0.32586634 -0.12797 1.564 5657161
-0.31590319 -0.12723881 1.564 5525831
-0.30575675 -0.126142 1.564 5328196
-0.294788 -0.126142 1.564 5196608
-0.28450447 -0.12751299 1.564 5130559
-0.27594566 -0.12763456 1.5640022 5854796
-0.26690081 -0.12644309 1.5635678 5197895
-0.245428 -0.128884 1.564 2894882
-0.23445925 -0.128884 1.564 2829339
-0.22417599 -0.1281985 1.564 7567247
-0.21526366 -0.127056 1.564 8751753
-0.20511761 -0.1283356 1.564 9343889
-0.191955 -0.128884 1.564 10067095
-0.18427679 -0.12669042 1.564 10593437
-0.1741305 -0.12385684 1.564 10790557
-0.16398461 -0.12559359 1.564 10592928
-0.15904801 -0.12751299 1.564 10527132
-0.075136684 -0.12394819 1.564 2894113
-0.064899035 -0.127056 1.564 2959906
-0.054158699 -0.1254565 1.564 3025699
-0.045050625 -0.123008 1.564 2960934
-0.035100363 -0.12175419 1.564 3092519
-0.024679899 -0.120657 1.564 3224360
-0.0164533 -0.120657 1.564 3224357
-0.0041133352 -0.120657 1.564 3421739
0.00411331 -0.120657 1.564 3619118
0.01234 -0.120657 1.564 4078387
0.034277674 -0.120657 1.564 6578809
0.0438754 -0.120657 1.564 12633018
0.068555303 -0.120657 1.564 12764606
0.071297497 -0.120657 1.564 12896190
-0.48263001 -0.117915 1.564 12961987
-0.47577399 -0.117915 1.564 13225155
-0.46754751 -0.117915 1.564 13225154
-0.27815786 -0.11952585 1.5619938 12699311
-0.26983267 -0.11923063 1.5622982 7501685
-0.25552249 -0.11216459 1.5650501 7896447
-0.085008629 -0.117915 1.564 3025441
-0.079524197 -0.117915 1.564 2959651
-0.014625133 -0.117915 1.564 3355433
-0.0068555353 -0.117915 1.564 3486763
0.015082175 -0.117915 1.564 4012594
0.024679935 -0.117915 1.564 4407095
0.034277678 -0.117915 1.564 6513787
0.046617597 -0.117915 1.564 12698299
0.054295838 -0.11626979 1.564 12698812
0.064899057 -0.11425899 1.564 12764605
0.074823253 -0.11673985 1.564 12764604
0.085008629 -0.117915 1.564 12896190
0.094880581 -0.11681819 1.564 12896190
0.10498757 -0.11399785 1.564 12896190
0.1144875 -0.1158585 1.564 12961983
0.12418314 -0.11673985 1.564 12961983
0.13573974 -0.117915 1.564 12896190
0.14533733 -0.116087 1.564 12896190
0.154935 -0.115173 1.564 12896204
0.16384751 -0.1131165 1.564 10132033
0.1741305 -0.112431 1.564 5920588
0.182357 -0.112431 1.564 5854795
0.20566601 -0.112431 1.564 5854026
0.219377 -0.112431 1.564 5459782
0.222119 -0.112431 1.564 5393988
-0.25138265 -0.10305119 1.5615468 8620168
-0.24376447 -0.1026246 1.5659636 8620939
-0.23365961 -0.1004383 1.5620155 8949128
0.176873 -0.109689 1.564 5724492
0.18601365 -0.10877466 1.564 5986124
0.19469698 -0.10831749 1.564 5919818
0.20409915 -0.10851342 1.564 5656648
0.21526374 -0.109689 1.564 5459526
0.22486167 -0.109689 1.564 5459524
0.23418501 -0.10804319 1.564 5327682
0.24588497 -0.10831749 1.564 4933438
0.25502601 -0.10804319 1.564 4802109
0.26462349 -0.10786033 1.564 4867645
0.27586681 -0.10584919 1.564 4736060
0.28519002 -0.105575 1.564 4736054
0.29498386 -0.10577086 1.564 8290181
0.30488324 -0.10463989 1.564051 12501688
0.31533802 -0.10558494 1.5643773 11712168
0.32497796 -0.10572024 1.5636141 11120034
0.33475089 -0.10454296 1.5640589 10593950
0.34414801 -0.105575 1.564 11119777
0.35557377 -0.1060321 1.564 10330521
0.36416581 -0.10639779 1.564 10133657
0.37431201 -0.102833 1.564 10133402
0.38573799 -0.102833 1.564 10527646
0.39487901 -0.104204 1.564 11185575
0.40506417 -0.10537914 1.564 11646125
0.41544533 -0.104204 1.564 11843512
0.42504302 -0.102833 1.564 8421187
0.434641 -0.104204 1.564 3552042
0.44560975 -0.1048895 1.564 3617835
0.45520735 -0.102833 1.564 3683373
0.46421742 -0.10263715 1.564 3617579
0.50730902 -0.101462 1.564 3815213
0.69926399 -0.101462 1.564 3486265
0.702007 -0.101462 1.564 4604729
0.747253 -0.101462 1.564 3224878
0.75548005 -0.101462 1.564 3422251
0.79524201 -0.101462 1.564 2565921
0.800726 -0.101462 1.564 2434596
0.30648667 -0.094798326 1.5688337 13093056
0.31701934 -0.096081257 1.5618958 9606545
0.33503219 -0.09579435 1.5606377 9081221
0.34785175 -0.092812121 1.5622151 6844526
0.47577399 -0.098719701 1.564 3683372
0.48605749 -0.098034143 1.564 3159083
0.49469519 -0.09652593 1.564 3684140
0.50511539 -0.097074375 1.564 3815213
0.51005203 -0.097348601 1.564 3881006
0.65538901 -0.090493105 1.564 12830652
0.66498673 -0.092549674 1.564 12764859
0.67595601 -0.0959775 1.564 12699066
0.68463939 -0.095520429 1.564 13817281
0.69456345 -0.097544476 1.564 5262635
0.70514065 -0.096760973 1.564 4078642
0.71331829 -0.094949119 1.564 4342586
0.72558981 -0.092686787 1.564 3553324
0.73559904 -0.095977485 1.564 3224618
0.74039799 -0.098719701 1.564 3290660
0.75959301 -0.098719701 1.564 3290156
0.76452923 -0.097074375 1.564 3683623
0.77558929 -0.096891575 1.564 3289895
0.78472996 -0.097805642 1.564 2960424
0.797984 -0.098719701 1.564 1644306
0.80758202 -0.098719701 1.564 2631970
0.81553423 -0.097074375 1.564 1514517
0.82540625 -0.096663043 1.564 2697761
0.83418143 -0.09652593 1.564 2500387
0.84460193 -0.095977508 1.564 3093030
0.85419953 -0.0959775 1.564 2171672
0.86516827 -0.093920775 1.564 2500115
0.87339497 -0.093235202 1.564 1579788
0.32496947 -0.083048314 1.5617934 2897726
0.35590863 -0.086996391 1.5660765 6910319
0.36533579 -0.082470119 1.5634708 7041393
0.577236 -0.082266398 1.564 7699559
0.58531016 -0.085313328 1.564 11975366
0.59506029 -0.0877508 1.564 12896191
0.60420102 -0.084551625 1.564 12896190
0.61151397 -0.082266398 1.564 12961983
0.63893598 -0.082266398 1.564 12896445
0.64496863 -0.085557088 1.564 12896444
-0.24530338 -0.073790468 1.564 7370357
-0.23406751 -0.074823253 1.5639999 7108213
-0.22668999 -0.072211631 1.564 7174007
0.35967046 -0.077927709 1.5602607 7436919
0.577236 -0.079524197 1.564 7895912
0.61562705 -0.079524197 1.564 12896190
0.62522501 -0.079524197 1.564 12896189
0.63399976 -0.078975759 1.564 12896445
-0.24679901 -0.068555303 1.564 7567208
-0.22417599 -0.067869753 1.564 7174263
-0.21545959 -0.066204838 1.564 7239800
0.348261 -0.03153545 1.564 7305851
0.35511667 -0.032358121 1.564 7042934
0.36416581 -0.034551881 1.564 6845812
0.37019899 -0.0356488 1.564 7042677
0.34414801 -0.026051 1.564 6515089
0.353746 -0.00274225 1.564 3750428
-0.84169197 -0.144114 1.5756665 2631461
-0.83495671 -0.14496455 1.5735455 2631456
-0.82496899 -0.14461051 1.5709999 2434339
-0.81539053 -0.14296018 1.5735455 3025964
-0.80520314 -0.14407843 1.57275 2696992
-0.79499054 -0.14430512 1.5747331 3025958
-0.78479153 -0.14421219 1.5735455 2762015
-0.77552569 -0.14390938 1.5724 2762534
-0.7648291 -0.14231509 1.571 3355179
-0.75441927 -0.1417487 1.5719999 2697249
-0.74544686 -0.14223157 1.573 3092264
-0.73489678 -0.14158061 1.571 2566176
-0.72580749 -0.14185601 1.571 2697766
-0.71433043 -0.1423151 1.571 2894629
-0.70554215 -0.14244628 1.571 2763299
-0.69609827 -0.14165927 1.571 3159087
-0.68448997 -0.140479 1.571 3091240
-0.67484933 -0.140479 1.571 2894631
-0.66461831 -0.14165927 1.571 2632229
-0.65419054 -0.140479 1.571 2434340
-0.64454967 -0.140479 1.571 2566178
-0.63904101 -0.140479 1.571 2895147
-0.6032325 -0.140479 1.571 3288100
-0.59496951 -0.140479 1.571 3223337
-0.58532846 -0.140479 1.571 3093032
-0.56466967 -0.140479 1.571 3092515
-0.55640632 -0.140479 1.571 2961196
-0.544011 -0.140479 1.571 3224109
-0.52059799 -0.140479 1.571 4013111
-0.84247851 -0.138338 1.5779999 3026470
-0.83358544 -0.13715215 1.5779999 2565919
-0.82449466 -0.1369545 1.5779999 2762283
-0.81461322 -0.13715215 1.5779999 3683121
-0.80512697 -0.138338 1.5779999 3025190
-0.79544353 -0.138338 1.5779999 2829091
-0.78391534 -0.13741566 1.5779999 2631713
-0.77469301 -0.1369545 1.5779999 2631717
-0.76500922 -0.13557133 1.5779999 3223343
-0.75572079 -0.1363617 1.5779999 2960416
-0.7447198 -0.13741566 1.5779999 2632227
-0.73457479 -0.1369545 1.5779999 2829347
-0.72489095 -0.1369545 1.5779999 2631723
-0.7146787 -0.135469 1.5768332 3025961
-0.70547861 -0.13514875 1.577125 3026981
-0.69541872 -0.13495678 1.575846 2960936
-0.6847024 -0.13403451 1.5762497 2894378
-0.67500955 -0.13536666 1.5756667 2763302
-0.66583294 -0.135469 1.5768332 2632995
-0.65439957 -0.13495678 1.575846 2304033
-0.64461988 -0.13536666 1.5756667 2500644
-0.6349507 -0.13536666 1.5756665 2829352
-0.62528205 -0.13384019 1.5754546 2895397
-0.61571199 -0.13391687 1.5737997 3158313
-0.6048187 -0.13378607 1.5742939 2828841
-0.59516805 -0.13423392 1.5741818 3618606
-0.58554864 -0.13533615 1.5753076 3158314
-0.57501584 -0.1356024 1.5752 3158569
-0.56526363 -0.13509773 1.5754546 2764071
-0.55492681 -0.13389201 1.5756664 3750447
-0.54521996 -0.13388424 1.5745 2960937
-0.53582084 -0.13362828 1.5747331 3750198
-0.52439517 -0.13401882 1.5751173 4144693
-0.51514018 -0.1329235 1.575375 3618607
-0.50866205 -0.13313332 1.571 4012854
-0.61283749 -0.127271 1.5779999 3092521
-0.60453701 -0.127271 1.5779999 3224365
-0.59762001 -0.127271 1.5779999 3420986
-0.53260148 -0.127271 1.5779999 4144442
-0.52845103 -0.127271 1.5779999 5065007
-0.51323402 -0.127271 1.5779999 3224104
-0.50486541 -0.12565909 1.5752 3750448
-0.49635857 -0.12340079 1.571 2632549
-0.45449033 -0.12119701 1.571 13554118
-0.44484949 -0.121197 1.571 13422790
-0.43796301 -0.121197 1.571 13554376
-0.41041899 -0.121197 1.571 13685706
-0.4049097 -0.12119701 1.571 13685706
-0.39526898 -0.121197 1.571 13619913
-0.38342458 -0.12174799 1.571 13554120
-0.37461033 -0.1225745 1.571 13488326
-0.36496949 -0.12257451 1.571 13619919
-0.35532868 -0.12257451 1.571 8749384
-0.34522888 -0.12303355 1.571 6249552
-0.33467001 -0.12257451 1.571 5920333
-0.32468501 -0.12360738 1.571 5723210
-0.31538877 -0.12257449 1.571 5394758
-0.30453825 -0.122642 1.571875 5393987
-0.29495117 -0.1226645 1.5721666 5261889
-0.28508949 -0.12340081 1.571 5130303
-0.27544868 -0.12395167 1.571 4801853
-0.26472217 -0.12385717 1.57275 3946546
-0.255032 -0.12544473 1.5724999 3419944
-0.24503291 -0.1238922 1.5738 2697504
-0.23522884 -0.12425118 1.5716363 2763289
-0.22504139 -0.12340081 1.571 5132662
-0.21485001 -0.1225745 1.571 8685960
-0.20483389 -0.12370128 1.571 9409936
-0.1941915 -0.12395167 1.571 10133658
-0.18546884 -0.1230335 1.571 10790813
-0.17628723 -0.12188575 1.571 10593436
-0.16458075 -0.12188575 1.571 11250856
-0.073682554 -0.12188575 1.571 2894369
-0.064790577 -0.1235088 1.5724 2763297
-0.055640601 -0.12229899 1.571 2895140
-0.048203498 -0.121197 1.571 2763555
-0.035808299 -0.121197 1.571 3026726
-0.50078398 -0.118971 1.5779999 3882008
-0.49396369 -0.11703833 1.5768332 6185144
-0.48552009 -0.11340836 1.5741818 14146246
-0.47457957 -0.1130155 1.5721666 13225156
-0.46516204 -0.11410042 1.5745 13356741
-0.45575213 -0.11496988 1.5753747 13488583
-0.44462091 -0.11566664 1.5741818 13554375
-0.43567911 -0.11422161 1.5742307 13554376
-0.42540154 -0.11446387 1.5742939 13619913
-0.41487974 -0.11495435 1.5744998 13619913
-0.40565884 -0.11501792 1.5763844 13685706
-0.39451471 -0.1146885 1.5762497 13685706
-0.38478822 -0.11637509 1.5766 13685706
-0.37527326 -0.11645555 1.5779999 13619913
-0.36440232 -0.11732351 1.5745 13290963
-0.35505369 -0.11604561 1.5759 8947280
-0.34487033 -0.11602801 1.5756665 6380882
-0.33503062 -0.1163751 1.5766 6052173
-0.3248176 -0.11675741 1.5779999 5789002
-0.3154107 -0.11620399 1.5779999 5591623
-0.30628031 -0.11675739 1.5779999 5591109
-0.29466 -0.11758751 1.5779999 5327938
-0.28436151 -0.11589655 1.5779999 5196096
-0.27562246 -0.11431207 1.5764998 4143407
-0.2647281 -0.11501196 1.5764441 3026210
-0.25454199 -0.1148205 1.5779999 2369052
-0.24485824 -0.1148205 1.5779997 2171162
-0.23545131 -0.11565061 1.5779999 2434078
-0.22509576 -0.11541343 1.5779998 5724012
-0.214424 -0.116204 1.5779999 9211790
-0.20453689 -0.11608667 1.5764444 10330267
-0.19521022 -0.11712633 1.5779999 10725020
-0.18528299 -0.11614534 1.5772222 10988196
-0.17521465 -0.11522572 1.5754998 11646125
-0.16752225 -0.11650275 1.57275 11843502
-0.083799593 -0.11265156 1.5756667 2828836
-0.075547047 -0.11639544 1.5764444 2894370
-0.065018848 -0.1175875 1.5779999 2763809
-0.054960199 -0.11648388 1.577125 2961188
-0.045281593 -0.11485319 1.5747331 2961189
-0.034526974 -0.114624 1.5753747 3092519
-0.024845617 -0.1145595 1.5745 3158568
-0.015293371 -0.11362461 1.5747691 3486761
-0.0052408925 -0.1136319 1.5731 3618091
0.0041409237 -0.11455949 1.5744997 3684142
0.015172175 -0.11309734 1.5733333 4078130
0.024838133 -0.11315323 1.5741111 4472633
0.034482233 -0.11309733 1.5733333 7237509
0.045176491 -0.11347076 1.5726153 12566973
0.055089731 -0.1115565 1.571 12764094
0.064730451 -0.110179 1.571 12698812
0.075832777 -0.11236788 1.57275 12830397
0.084987909 -0.1128546 1.5738 12830397
0.094561115 -0.11248098 1.5724 12896190
0.10467032 -0.110179 1.571 12961984
0.114311 -0.1115565 1.571 12961984
0.12578812 -0.11201555 1.571 12961983
0.13496965 -0.11293367 1.571 12896190
0.14405958 -0.11238279 1.571 12896190
0.15562849 -0.1115565 1.571 13225162
0.16526933 -0.110179 1.571 7040316
0.1721555 -0.110179 1.571 6117968
-0.48141599 -0.107904 1.5779999 13159363
-0.47477603 -0.1073506 1.5779999 13290949
-0.43438101 -0.107904 1.5779999 13619914
-0.27183375 -0.10582875 1.5779999 6711647
-0.26422551 -0.105137 1.5779999 5528924
-0.25454199 -0.10513701 1.5779999 5266007
-0.24511096 -0.10528111 1.5773892 4935485
-0.237941 -0.107904 1.5779999 1972762
-0.17153899 -0.107904 1.5779999 12238260
-0.0885363 -0.107904 1.5779999 1776675
-0.0069169002 -0.107904 1.5779999 3815213
0.016600534 -0.10790399 1.5779999 4209715
0.024900869 -0.10790399 1.5779999 4669752
0.0345845 -0.107904 1.5779999 8158613
0.046244401 -0.10671815 1.5779999 12633020
0.055251334 -0.10636083 1.5756665 12764605
0.064051621 -0.10690185 1.5768332 12764351
0.074702494 -0.10790399 1.5779999 12829888
0.08438617 -0.107904 1.5779999 12895679
0.096375465 -0.10698166 1.5779999 12896190
0.10490367 -0.10628099 1.5745 12961983
0.11496455 -0.10517191 1.5748181 12961983
0.12438267 -0.10503056 1.5764444 13027776
0.13406201 -0.10538854 1.5779999 12961983
0.14510135 -0.10605934 1.5779999 12896190
0.15493865 -0.1065205 1.5779999 12830415
0.16491835 -0.10595289 1.5764444 8224336
0.1752976 -0.1048995 1.5745 5986893
0.18430762 -0.10438275 1.571875 5920588
0.1941915 -0.103293 1.571 6051660
0.20536257 -0.10375211 1.571 5722697
0.214958 -0.10472078 1.5717778 5722440
0.22457235 -0.10470817 1.5715833 5393990
0.23504943 -0.10375211 1.571 5262403
0.24554287 -0.10388328 1.571 5130558
0.25479001 -0.103293 1.571 4933180
0.26580802 -0.103293 1.571 4801595
0.27489781 -0.10301761 1.571 4604474
0.28508949 -0.101916 1.571 4801843
0.29473025 -0.10260449 1.571 5921187
0.30486909 -0.10176484 1.571592 12436149
0.31538874 -0.101916 1.571 12106673
0.32502934 -0.10191599 1.571 11975088
0.33467001 -0.101916 1.571 11711913
0.34568799 -0.101916 1.571 10724764
0.35532868 -0.10191599 1.571 10132121
0.36469397 -0.10246681 1.571 10132378
0.371856 -0.101916 1.571 9936027
0.388383 -0.101916 1.571 10593440
0.39664635 -0.10191599 1.571 11382952
0.4049097 -0.10191599 1.571 11646124
0.41455024 -0.101916 1.571 11777711
0.43796301 -0.101916 1.571 3815212
0.44484949 -0.101916 1.571 3683626
-0.2636326 -0.095848486 1.5779998 6843754
-0.25397626 -0.095246635 1.5745 6318441
-0.2445161 -0.09532512 1.5758122 6384234
-0.2363603 -0.094069839 1.5779999 6844268
0.18537299 -0.099603392 1.5779999 5920583
0.19472975 -0.098054275 1.575375 5985867
0.20443951 -0.098072708 1.5756665 5788489
0.213594 -0.099050045 1.5779999 5657159
0.22641318 -0.098681144 1.5779999 5394245
0.23607863 -0.097818911 1.577125 5327939
0.24513735 -0.096544892 1.5773636 5196352
0.25529262 -0.09776368 1.57625 4933180
0.26475316 -0.096689306 1.5756665 4736059
0.27511084 -0.096386462 1.5748181 4670010
0.28431749 -0.097073525 1.57625 4736057
0.29521328 -0.097389959 1.5779999 9079959
0.305051 -0.096617721 1.5745 12238516
0.31551635 -0.095961832 1.5750833 12040882
0.32508147 -0.095088169 1.5765997 11975089
0.33492759 -0.095660858 1.5749998 11317156
0.34507477 -0.095235378 1.5744997 10001043
0.355443 -0.094871245 1.5749998 9737620
0.36518925 -0.095630184 1.5744998 9935514
0.37477356 -0.094871238 1.5749998 9738900
0.38439184 -0.095599495 1.5739998 10330524
0.39442629 -0.095493913 1.5754998 11185575
0.40524611 -0.095088162 1.5765997 11777709
0.41487128 -0.095636494 1.575846 11843509
0.42550531 -0.095923699 1.5751997 7104840
0.43552643 -0.094871238 1.5749998 4011821
0.44510612 -0.09559951 1.5739998 3814956
0.45549977 -0.09523537 1.5744997 3617835
0.46540073 -0.095113605 1.5742307 3552299
0.47446787 -0.094169788 1.5726153 3552299
0.48445231 -0.093417615 1.5717 3355689
0.49443051 -0.092275292 1.571 3487019
0.50518084 -0.092529893 1.5719999 3749164
0.51293439 -0.092086233 1.5756665 3684140
0.57825297 -0.091303103 1.5779999 7239285
0.66796303 -0.090898097 1.571 12830652
0.6754002 -0.091999851 1.571 12699065
0.68449003 -0.091816224 1.571 13949085
0.695508 -0.092275292 1.571 4012845
0.70475519 -0.092865549 1.571 4144435
0.71478945 -0.090898097 1.571 3619630
0.72443032 -0.090898097 1.571 3553579
0.73613626 -0.091586694 1.571 3552553
0.7461009 -0.094638221 1.5721666 3224618
0.75487846 -0.095131047 1.57275 3224871
0.7641241 -0.093558013 1.5733333 3026980
0.775388 -0.092275299 1.571 2895136
0.78502864 -0.092275292 1.571 2698532
0.7953164 -0.094468482 1.5714998 2894889
0.80568743 -0.094439551 1.5709999 3289388
0.81498396 -0.093308248 1.571 2895393
0.82437855 -0.092472039 1.571 2698015
0.83541107 -0.092252135 1.574 1974804
0.84425056 -0.092275292 1.571 2698791
0.85561514 -0.092529893 1.5719999 3751216
0.8637085 -0.091883726 1.5721666 3816234
0.87454951 -0.090898097 1.571 3290916
-0.26215026 -0.086461246 1.5779999 8685687
-0.25441435 -0.085138679 1.571 7172721
-0.24514934 -0.085389085 1.571 6778736
-0.23568143 -0.085454546 1.5721666 6910579
-0.22779651 -0.084386177 1.5779999 7239543
0.33616149 -0.0885363 1.5779999 9870731
0.34169447 -0.0885363 1.5779999 9080711
0.387346 -0.0885363 1.5779999 11119781
0.43576476 -0.0885363 1.5779999 4012077
0.442682 -0.0885363 1.5779999 3815213
0.45513204 -0.0885363 1.5779999 3421482
0.46204901 -0.0885363 1.5779999 3421740
0.47449926 -0.0885363 1.5779999 3421738
0.48568663 -0.086244382 1.5766 3355946
0.49435648 -0.086017236 1.57625 3355945
0.50493371 -0.08715295 1.5779999 3486506
0.51323402 -0.08715295 1.5779999 3815212
0.57825297 -0.080236003 1.5779999 7370609
0.58946002 -0.082634598 1.571 14014652
0.59572488 -0.082736291 1.573 12830398
0.60211259 -0.082705781 1.5724 12896190
0.647304 -0.082634598 1.571 12896445
0.65511125 -0.084235243 1.5729091 12830652
0.66459614 -0.085374877 1.5764444 12830651
0.67508966 -0.0885363 1.5779999 12764858
0.68536615 -0.08735057 1.5779999 13159315
0.69584024 -0.08715295 1.5779999 3289386
0.70541495 -0.087238371 1.576 3882033
0.71499848 -0.086956598 1.5745 3750962
0.7261433 -0.086060636 1.5741818 3684652
0.73473227 -0.084932134 1.575375 3355947
0.74564201 -0.08715295 1.5779999 3224616
0.75532562 -0.08715295 1.5779999 3158825
0.76583922 -0.08798296 1.5779999 2895909
0.77523065 -0.08634077 1.5772222 2829601
0.78368473 -0.086115412 1.5779999 2632481
0.79603642 -0.08735057 1.5779999 3026982
0.80512697 -0.0885363 1.5779999 3289640
0.81540388 -0.08735057 1.5779999 3092773
0.82449466 -0.08715295 1.5779999 3356459
0.83334816 -0.08798296 1.5779999 4146997
0.84607518 -0.08798296 1.5779999 3291943
0.85492897 -0.087844625 1.5779999 2633509
0.86524773 -0.085318208 1.5769998 2829601
0.87536174 -0.084584326 1.5765997 3158570
0.88259703 -0.0843862 1.5779999 4014613
-0.254637 -0.077125616 1.571 9935479
-0.245838 -0.079191476 1.571 6976883
-0.238263 -0.079880103 1.571 7108213
-0.2242042 -0.075904816 1.5716363 7239542
-0.2159752 -0.072914846 1.5752 7501945
0.57781565 -0.075052127 1.5738 7370097
0.58536404 -0.075580664 1.5742307 9080741
0.59485334 -0.076085895 1.5779999 13356988
0.60515481 -0.076947793 1.5754998 12896189
0.61551249 -0.075131401 1.5736922 12896189
0.62527132 -0.074159518 1.5724 12830652
0.63503444 -0.07412073 1.571 12830652
0.64529407 -0.075911 1.5745 12764859
0.65182275 -0.077398099 1.5766 12830653
-0.21347299 -0.068862103 1.571 7567223
0.582403 -0.069169 1.5779999 7633764
0.61837101 -0.069169 1.5779999 12896188
0.62528801 -0.069169 1.5779999 12830652
0.6349715 -0.069169 1.5779999 12764859
0.64327151 -0.069169 1.5779999 12830652
0.34719342 -0.042017937 1.5766 7174262
0.3558245 -0.045144394 1.57625 6911861
0.36474514 -0.043138582 1.5745 6977140
0.3721295 -0.042884797 1.5779999 6976629
0.34645405 -0.035431057 1.5745 8094843
0.3558796 -0.037461001 1.571 6846324
0.36496949 -0.038562801 1.571 6714741
0.37323302 -0.038562801 1.571 6911092
0.344311 -0.02479035 1.571 5592693
0.347065 -0.0165269 1.571 2172953
-0.84535903 -0.1348685 1.586 2763553
-0.83562648 -0.1320875 1.586 2763042
-0.82450324 -0.13278276 1.586 3091758
-0.81407529 -0.13417324 1.586 3289131
-0.80563354 -0.13506715 1.5859998 2894631
-0.79530495 -0.13486849 1.586 2762787
-0.78572679 -0.13255101 1.586 2500131
-0.77537614 -0.131624 1.586 3092775
-0.76471633 -0.130697 1.586 3288106
-0.75498348 -0.133478 1.586 2696996
-0.745251 -0.1320875 1.586 2368291
-0.73551822 -0.1320875 1.586 2762530
-0.72532183 -0.131624 1.586 2762022
-0.71466231 -0.130697 1.586 2893864
-0.70492953 -0.130697 1.586 3619118
-0.69797701 -0.130697 1.586 2697752
-0.68129301 -0.130697 1.586 2170666
-0.67434078 -0.130697 1.586 3290159
-0.664608 -0.130697 1.586 3028005
-0.653485 -0.130697 1.586 2830888
-0.64514267 -0.130697 1.586 2895912
-0.63679999 -0.130697 1.586 2961190
-0.59369802 -0.130697 1.586 3487278
-0.58535552 -0.130697 1.586 3355688
-0.57423252 -0.130697 1.586 2961193
-0.56588995 -0.130697 1.586 3158827
-0.77305901 -0.12791599 1.586 2237467
-0.723005 -0.12791599 1.586 3024932
-0.70910102 -0.12791599 1.586 3222846
-0.69519663 -0.12791599 1.586 2434853
-0.68546396 -0.12791599 1.586 3158057
-0.67434072 -0.12791599 1.586 2961447
-0.664608 -0.12791599 1.586 3224619
-0.65904701 -0.12791599 1.586 3093022
-0.631239 -0.12791599 1.586 3026233
-0.62345225 -0.12735979 1.586 3420464
-0.61455399 -0.125135 1.586 3355945
-0.60482126 -0.125135 1.586 3356210
-0.59786898 -0.12791599 1.586 4144687
-0.57006103 -0.12791599 1.586 1514011
-0.561719 -0.12791599 1.586 3683373
-0.55476701 -0.12791599 1.586 3749937
-0.54503399 -0.12791599 1.586 2763306
-0.53613585 -0.12569121 1.586 4211001
-0.5241785 -0.12652549 1.586 3749420
-0.51444566 -0.12420833 1.586 3947827
-0.50888401 -0.122355 1.586 4605748
-0.5047127 -0.1181835 1.586 3815463
-0.49637049 -0.1126215 1.586 1579659
-0.45187747 -0.111231 1.586 13620168
-0.447707 -0.111231 1.586 13620167
-0.40460449 -0.111231 1.586 13751499
-0.38513899 -0.111231 1.586 13685706
-0.37471074 -0.11192625 1.586 13685705
-0.36567348 -0.1126215 1.586 14080209
-0.35455024 -0.111231 1.586 8289102
-0.34481764 -0.111231 1.586 6183502
-0.3342506 -0.1117872 1.586 6117966
-0.32535201 -0.11192625 1.586 5920843
-0.31561923 -0.111231 1.586 5920331
-0.30449623 -0.11331675 1.586 5459523
-0.29476333 -0.11262151 1.586 5197122
-0.288275 -0.112158 1.586 5262402
-0.233586 -0.111231 1.586 2828572
-0.228025 -0.111231 1.586 153
-0.21551099 -0.111231 1.586 9935255
-0.2035536 -0.1117872 1.586 10461849
-0.1940988 -0.11234341 1.586 11119786
-0.18492225 -0.111231 1.586 12238261
-0.17519 -0.111231 1.586 12369846
-0.074386075 -0.11192625 1.586 2895140
-0.064421564 -0.113085 1.586 2895394
-0.055059541 -0.1117872 1.586 2961189
-0.48478401 -0.1061335 1.586 13883076
-0.47551465 -0.104743 1.586 13488327
-0.46578175 -0.10706049 1.586 13488328
-0.45525441 -0.10725915 1.5859998 13554120
-0.44436979 -0.10733859 1.586 13554121
-0.43499455 -0.10686184 1.5859998 13685706
-0.42546034 -0.10706049 1.586 13619913
-0.4166545 -0.107524 1.586 13685706
-0.40460449 -0.108451 1.586 13751499
-0.39487204 -0.108451 1.586 13685705
-0.38374901 -0.108451 1.586 13619914
-0.364283 -0.108451 1.586 13816537
-0.35455024 -0.108451 1.586 8289355
-0.34620798 -0.108451 1.586 6578516
-0.28364 -0.108451 1.586 5459290
-0.27576151 -0.103816 1.586 7830124
-0.23553269 -0.1048357 1.5860001 3223081
-0.225244 -0.108451 1.586 6514319
-0.21968199 -0.108451 1.586 9738137
-0.180751 -0.108451 1.586 12172467
-0.17658 -0.1070605 1.586 12238261
-0.093434379 -0.1045576 1.586 5198380
-0.084814005 -0.10636525 1.586 2434597
-0.077862002 -0.108451 1.586 2960931
-0.050054099 -0.108451 1.586 3092773
-0.044492602 -0.108451 1.586 3092775
-0.033925619 -0.1078948 1.586 3158567
-0.025027102 -0.10706049 1.586 3290153
-0.015492929 -0.10725915 1.5859998 3486763
-0.0048663821 -0.10636525 1.586 3815213
0.0041711675 -0.1070605 1.586 3881006
0.0144601 -0.10622619 1.586 3946802
0.025027102 -0.10567 1.586 4341299
0.035355743 -0.10447814 1.5859998 9079985
0.044492602 -0.1042795 1.586 12501435
0.054225329 -0.101962 1.586 12764606
0.06627544 -0.103816 1.586 12829888
0.075081229 -0.10567 1.586 12895680
0.085648239 -0.10511379 1.586 12830144
0.09454675 -0.1042795 1.586 12896190
0.1052065 -0.10196201 1.586 12961982
0.11456821 -0.1006642 1.586 12896191
0.12513533 -0.100108 1.586 13093568
0.13514641 -0.1006642 1.586 12961983
0.144601 -0.101962 1.586 12961983
0.15433374 -0.102889 1.586 13093580
0.16452983 -0.10149851 1.586 8223551
0.17518966 -0.100108 1.586 6183499
0.180751 -0.100108 1.586 6118220
-0.272517 -0.097327597 1.586 9804409
-0.26973599 -0.093156353 1.586 8028282
-0.232659 -0.095473699 1.586 6514777
-0.228025 -0.091766 1.586 7304030
-0.17519 -0.091766 1.586 12173492
-0.097327501 -0.093156353 1.586 5790836
0.123745 -0.097327597 1.586 13093567
0.18492225 -0.097327597 1.586 6117965
0.1960455 -0.094546698 1.586 6051659
0.20438775 -0.094546698 1.586 5920075
0.215233 -0.096215241 1.586 5722695
0.22468778 -0.095659062 1.586 5591622
0.2352546 -0.093434416 1.586 5459523
0.244709 -0.091766 1.586 5262145
0.25444198 -0.092692904 1.586 4933693
0.26556498 -0.091766 1.586 4736059
0.275298 -0.091766 1.586 4604729
0.2858648 -0.092322141 1.586 4539174
0.29420719 -0.092878282 1.586 6316457
0.30449626 -0.091766 1.586 12238258
0.31283849 -0.091766 1.586 12040882
0.400433 -0.091766 1.586 11711918
0.42407 -0.091766 1.586 11251260
-0.266029 -0.085277468 1.586 11777674
-0.225244 -0.084350526 1.586 7305332
0.30588669 -0.088985197 1.586 12303542
0.3164534 -0.088429041 1.586 11908789
0.32535201 -0.0875948 1.586 11711659
0.33493024 -0.085895427 1.586 9409931
0.34481758 -0.086204402 1.586 9080451
0.35455048 -0.0875948 1.586 9014404
0.36532143 -0.086888961 1.5858939 9079946
0.375406 -0.088289998 1.586 9080715
0.38583413 -0.086552002 1.586 10988198
0.3945244 -0.086552002 1.586 11646125
0.40520045 -0.087793425 1.5859998 11909295
0.41572753 -0.0875948 1.586 12435640
0.42546034 -0.0875948 1.586 5394461
0.43449801 -0.086899601 1.586 4077870
0.44562125 -0.086899601 1.586 3815213
0.45382419 -0.086760566 1.586 3749421
0.46670869 -0.087131329 1.586 3487532
0.47551465 -0.086204402 1.586 3355945
0.484413 -0.0834236 1.586 3355947
0.49498001 -0.080642797 1.586 3355947
0.50387859 -0.082867444 1.586 3552555
0.51444566 -0.083423592 1.586 3815212
0.52000701 -0.086204402 1.586 3815213
0.66738898 -0.080642797 1.586 12830652
0.6738773 -0.08388707 1.586 12699067
0.68453711 -0.084350534 1.586 12961701
0.69519663 -0.083423592 1.586 2827817
0.70492947 -0.0834236 1.586 3881777
0.71466202 -0.083423592 1.586 3948596
0.72439498 -0.082728393 1.586 4079415
0.73551828 -0.080642797 1.586 3815470
0.74580717 -0.081755117 1.586 3619882
0.75498348 -0.082033202 1.586 3093033
0.76506394 -0.083076008 1.586 3093032
0.77385342 -0.082629085 1.5859998 2895396
0.7864064 -0.081198961 1.586 2895135
0.79530495 -0.083423607 1.5859998 2764060
0.80596471 -0.084350534 1.586 3158822
0.81421423 -0.084535919 1.586 3026469
0.82509911 -0.082231827 1.5859998 3027493
0.83562648 -0.0834236 1.586 2961701
0.84535903 -0.084814005 1.586 2633505
0.85462862 -0.083114624 1.586 3028523
0.86426878 -0.082867444 1.586 3027234
0.8856805 -0.080642797 1.586 2695972
-0.21968199 -0.077862002 1.586 7305332
0.59647846 -0.072300501 1.586 13948860
0.60482126 -0.072300501 1.586 12896189
0.61455399 -0.072300501 1.586 12830653
0.65626597 -0.073690847 1.586 12830651
0.66321754 -0.077862002 1.586 12896443
0.77862 -0.077862002 1.586 2960937
0.7827915 -0.077862002 1.586 3224109
0.8745575 -0.077862002 1.586 3092519
0.88428998 -0.077862002 1.586 2565409
0.58535552 -0.067665808 1.586 6777978
0.5950883 -0.069519602 1.586 13027786
0.60482126 -0.069519602 1.586 12896190
0.61455399 -0.069519602 1.586 12830397
0.62428647 -0.066738904 1.586 12896189
0.63540977 -0.066738904 1.586 12896189
0.642362 -0.066738904 1.586 12830397
0.65209448 -0.069519602 1.586 12830652
0.34574449 -0.054070853 1.586 6976884
0.35371619 -0.053669192 1.5860001 6976884
0.36358774 -0.050749376 1.586 7239287
0.34442043 -0.04528711 1.5859998 7174262
0.35176951 -0.047273401 1.586 7042677
0.36845452 -0.047273401 1.586 6778991
0.378187 -0.0417118 1.586 7107956
0.34203699 -0.038931001 1.586 9081730
0.344818 -0.0250271 1.586 2237217
0.358722 -0.0055615702 1.586 1645111
-0.85188299 -0.131274 1.5930001 2499870
-0.8476935 -0.131274 1.5930001 2499877
-0.8225565 -0.131274 1.5930001 3354927
-0.81557399 -0.131274 1.5930001 3157283
-0.80551815 -0.13183258 1.5930001 2828326
-0.79741848 -0.131274 1.5930001 2695706
-0.75552249 -0.131274 1.5930001 3749680
-0.85188299 -0.12708449 1.5930001 2170915
-0.84583157 -0.12755001 1.5930001 2566180
-0.83512497 -0.128481 1.5930001 1908759
-0.82534951 -0.128481 1.5930001 3092520
-0.81557399 -0.128481 1.5930001 2828323
-0.80579752 -0.128481 1.5930001 2829354
-0.79462552 -0.128481 1.5930001 2697505
-0.78485006 -0.128481 1.5930001 3158315
-0.77487504 -0.12688501 1.5930002 2960929
-0.76529837 -0.12708451 1.5930001 2894630
-0.75552249 -0.12708451 1.5930002 3092010
-0.74435043 -0.12708451 1.5930002 3224107
-0.73513359 -0.1273638 1.5930001 3223341
-0.72460002 -0.12688501 1.5930002 3156773
-0.7155816 -0.12680522 1.5930001 2827810
-0.70584595 -0.12688501 1.5930002 3487014
-0.695472 -0.125688 1.5930001 2763300
-0.68569648 -0.12429151 1.5930002 3026985
-0.67545533 -0.12475701 1.5930001 2961446
-0.66474801 -0.125688 1.5930001 3224106
-0.65557098 -0.12728401 1.5930002 2895917
-0.64519697 -0.12708451 1.5930001 3159347
-0.63635248 -0.126619 1.5930001 3158062
-0.62452799 -0.12401221 1.5930001 3486769
-0.61447304 -0.122895 1.5930001 3356457
-0.60469753 -0.12359326 1.5930001 3355949
-0.59492201 -0.12708451 1.5930001 3355944
-0.58514649 -0.12708451 1.5930002 3027240
-0.57592905 -0.1268052 1.5930001 2961182
-0.56579399 -0.12608701 1.5930002 3091499
-0.5544225 -0.1242915 1.5930002 3814960
-0.54534525 -0.12429151 1.5930001 3421234
-0.53394014 -0.121964 1.5930001 4012846
-0.52509499 -0.1214985 1.5930001 3683633
-0.51727462 -0.1212192 1.5930001 4012852
-0.50484574 -0.114515 1.5930001 3947298
-0.49995801 -0.111722 1.5930001 2040338
-0.30444369 -0.111722 1.5930001 5526343
-0.068429947 -0.111722 1.5930001 2895653
-0.49437201 -0.1075325 1.5930001 7567052
-0.48459575 -0.1019465 1.5930001 13685701
-0.4753786 -0.1022258 1.5930001 13488327
-0.46411347 -0.10241201 1.5930001 13619913
-0.45487002 -0.10254501 1.5930002 13685706
-0.44549325 -0.10264475 1.5930002 13685706
-0.43432051 -0.103343 1.5930001 13751500
-0.42454502 -0.103343 1.5930001 13883084
-0.41417101 -0.10454001 1.5930002 13751499
-0.40499401 -0.106136 1.5930001 13751499
-0.39521822 -0.10543776 1.5930002 13817293
-0.38544202 -0.10725321 1.5930001 13751498
-0.37566653 -0.10613599 1.5930003 13751499
-0.3644945 -0.106136 1.5930001 14540481
-0.35471901 -0.106136 1.5930001 6644043
-0.34401166 -0.107067 1.5930001 6446675
-0.33516702 -0.1075325 1.5930001 6249297
-0.32598999 -0.107732 1.5930002 6117710
-0.31421947 -0.108929 1.5930001 5920073
-0.30444369 -0.108929 1.5930001 5460551
-0.29466748 -0.108929 1.5930001 5131843
